ply
format ascii 1.0
element vertex 1317
property float x
property float y
property float z
property uchar red
property uchar green
property uchar blue
end_header
-0.039389 0.148045 0.015483 255 0 0
0.006750 0.397876 0.015757 255 0 0
0.054297 -0.170985 0.137711 255 0 0
-0.028350 -0.118344 0.141178 255 0 0
0.038903 0.169958 0.099109 255 0 0
0.012009 0.182534 -0.037603 255 0 0
-0.001719 0.136382 0.132180 255 0 0
0.085161 -0.109043 0.088721 255 0 0
0.001519 -0.348944 -0.021597 255 0 0
-0.001261 0.116775 0.110076 255 0 0
0.028548 0.040754 -0.011393 255 0 0
0.045804 0.156138 0.065543 255 0 0
0.039324 -0.185319 0.116077 255 0 0
0.024346 -0.110362 -0.027269 255 0 0
-0.013203 -0.049671 0.158091 255 0 0
-0.011357 0.240490 0.087424 255 0 0
-0.065655 -0.131696 0.054239 255 0 0
-0.099481 -0.340453 0.140523 255 0 0
-0.074502 0.230846 0.081780 255 0 0
-0.088527 0.233016 0.037939 255 0 0
-0.068377 0.119155 0.059818 255 0 0
0.003580 0.089163 0.124122 255 0 0
0.068315 0.229837 -0.002523 255 0 0
-0.033604 0.351111 0.069666 255 0 0
-0.012220 0.183723 -0.027909 255 0 0
0.032654 0.180801 0.213284 255 0 0
-0.021830 0.161907 0.077807 255 0 0
-0.057795 0.363858 0.058939 255 0 0
0.015729 0.140125 -0.094654 255 0 0
-0.032459 -0.059793 0.042347 255 0 0
0.008041 -0.094753 0.135195 255 0 0
0.075549 0.010270 0.180658 255 0 0
-0.085256 0.039173 0.104311 255 0 0
0.074756 0.188363 0.120093 255 0 0
0.028387 -0.287526 -0.010361 255 0 0
-0.014030 0.197118 -0.041553 255 0 0
0.005393 0.149044 0.049057 255 0 0
0.008133 -0.260734 0.004686 255 0 0
-0.098013 -0.155685 0.101434 255 0 0
0.008476 0.084956 0.149905 255 0 0
-0.074166 0.181934 0.101456 255 0 0
-0.033067 0.033692 0.145859 255 0 0
0.015395 -0.175735 -0.014681 255 0 0
-0.031369 0.193534 0.160219 255 0 0
-0.025545 -0.115483 0.091977 255 0 0
-0.076068 -0.118803 0.041230 255 0 0
-0.001837 -0.117040 0.155435 255 0 0
0.061635 0.005753 0.073809 255 0 0
0.075075 -0.056579 0.127160 255 0 0
-0.040277 0.257848 -0.023925 255 0 0
-0.075668 -0.146878 0.075877 255 0 0
-0.013545 0.129719 -0.094865 255 0 0
-0.052617 -0.157258 0.111262 255 0 0
-0.060101 -0.320021 0.083976 255 0 0
0.017118 0.036350 0.003939 255 0 0
-0.011594 -0.073130 0.159547 255 0 0
0.090917 -0.390727 0.136314 255 0 0
-0.005841 -0.194161 0.144416 255 0 0
-0.019463 -0.020336 0.158889 255 0 0
0.053346 0.123750 0.183141 255 0 0
-0.083146 -0.237958 0.081585 255 0 0
0.011295 -0.217157 0.045897 255 0 0
-0.033219 0.203902 0.077741 255 0 0
-0.025688 -0.099944 0.129635 255 0 0
-0.069147 0.050628 0.099658 255 0 0
0.042994 0.109194 0.136639 255 0 0
0.051049 -0.157449 0.107836 255 0 0
-0.109781 -0.193165 0.064666 255 0 0
-0.042166 0.305319 0.050089 255 0 0
-0.105375 -0.153738 0.094648 255 0 0
0.049023 -0.198596 0.129079 255 0 0
-0.042269 -0.334181 0.048806 255 0 0
-0.045719 -0.108353 0.011879 255 0 0
-0.009608 0.089396 0.126361 255 0 0
0.060952 -0.192589 0.078823 255 0 0
-0.073958 -0.142253 0.021690 255 0 0
-0.079266 -0.136475 0.137180 255 0 0
0.039934 -0.291036 -0.020243 255 0 0
0.026187 0.217384 0.164672 255 0 0
-0.013654 0.402213 0.082190 255 0 0
0.084066 -0.158940 0.099450 255 0 0
-0.054346 -0.262657 0.106479 255 0 0
0.022567 0.347117 0.050747 255 0 0
-0.047419 0.195540 0.093294 255 0 0
0.045164 -0.162173 0.029864 255 0 0
0.090303 -0.304568 0.090788 255 0 0
-0.067910 0.023355 0.065535 255 0 0
-0.025951 0.234755 0.091789 255 0 0
-0.035206 -0.216478 0.076532 255 0 0
0.017603 0.146482 0.126116 255 0 0
0.033622 0.106472 -0.053027 255 0 0
-0.027645 -0.221223 0.052495 255 0 0
0.089473 -0.167060 0.055643 255 0 0
-0.114876 -0.216859 0.094288 255 0 0
-0.022570 -0.206831 0.112363 255 0 0
0.104572 -0.329143 0.027859 255 0 0
0.055100 0.219404 0.147558 255 0 0
-0.104887 0.080232 0.031897 255 0 0
-0.074932 0.135004 -0.015072 255 0 0
-0.022455 0.374236 0.014395 255 0 0
0.036241 -0.103945 -0.020466 255 0 0
0.039453 -0.084881 0.078315 255 0 0
0.088199 -0.046113 0.021460 255 0 0
-0.022596 -0.267597 -0.003112 255 0 0
-0.074178 -0.267013 0.077231 255 0 0
0.037294 0.072050 -0.053259 255 0 0
-0.031491 0.036980 -0.012247 255 0 0
0.052758 0.147059 0.222590 255 0 0
-0.087370 -0.205318 0.079205 255 0 0
0.052471 -0.334482 0.079173 255 0 0
-0.023432 0.103806 0.102669 255 0 0
0.068374 -0.377778 -0.047135 255 0 0
0.040620 0.240157 -0.007712 255 0 0
-0.032032 -0.391163 0.112787 255 0 0
-0.060938 0.160880 0.135355 255 0 0
-0.041954 -0.217698 0.058887 255 0 0
-0.005875 0.233477 0.058355 255 0 0
-0.072089 0.184585 -0.014472 255 0 0
-0.048507 -0.241314 0.031258 255 0 0
-0.082292 0.191681 0.074182 255 0 0
0.046681 0.301480 0.124078 255 0 0
0.019935 -0.310901 0.133853 255 0 0
0.018743 -0.321167 -0.031684 255 0 0
0.037034 -0.245853 0.108577 255 0 0
0.026404 0.081065 0.001202 255 0 0
0.063245 0.095047 0.126568 255 0 0
-0.021392 -0.385310 0.024819 255 0 0
0.028720 0.084820 0.117083 255 0 0
0.111497 0.041078 0.097859 255 0 0
0.016836 0.130697 -0.101139 255 0 0
0.052214 0.264302 0.006216 255 0 0
-0.001408 -0.026189 0.065465 255 0 0
-0.074321 -0.090455 0.092870 255 0 0
-0.038450 -0.040349 0.145005 255 0 0
0.036668 -0.307542 -0.057490 255 0 0
0.044026 -0.335173 0.081806 255 0 0
0.091987 0.037478 0.008803 255 0 0
0.065704 0.064161 -0.029853 255 0 0
0.035422 0.168133 0.065659 255 0 0
-0.027422 0.224957 0.150826 255 0 0
0.068302 0.262485 0.112099 255 0 0
-0.026541 -0.166961 -0.012734 255 0 0
0.060350 -0.347290 0.063411 255 0 0
0.077781 -0.319266 0.097005 255 0 0
-0.122816 -0.340783 0.134391 255 0 0
0.022163 0.052296 -0.046439 255 0 0
0.086871 -0.215703 0.124045 255 0 0
0.035540 0.145796 0.079779 255 0 0
0.023093 -0.113943 0.161651 255 0 0
0.063012 0.138699 0.172255 255 0 0
-0.041020 0.200997 0.070392 255 0 0
-0.099663 -0.386102 0.151084 255 0 0
-0.048160 -0.054867 0.153567 255 0 0
0.085909 -0.014488 0.080497 255 0 0
0.012537 -0.051351 0.146705 255 0 0
0.069000 -0.077231 0.007859 255 0 0
0.150482 0.128449 0.108184 0 255 0
-0.091204 -0.366430 -0.002649 0 255 0
0.083688 -0.033689 0.200627 0 255 0
0.140359 0.189246 0.033793 0 255 0
0.048269 0.276123 0.199912 0 255 0
-0.092120 -0.333313 0.144873 0 255 0
-0.083813 -0.118387 -0.047090 0 255 0
-0.056013 -0.086339 0.148191 0 255 0
0.086209 0.251906 0.274103 0 255 0
0.117424 -0.457592 -0.063262 0 255 0
0.007098 0.222579 -0.228117 0 255 0
0.031690 0.175761 -0.040820 0 255 0
0.179200 -0.374611 -0.015758 0 255 0
0.030823 -0.086425 0.268375 0 255 0
-0.117101 0.108854 0.413096 0 255 0
-0.060237 0.144872 -0.186605 0 255 0
0.408723 0.307476 -0.105237 0 255 0
0.021622 -0.365049 0.183823 0 255 0
0.113174 0.103779 0.439555 0 255 0
0.103540 0.093332 0.191939 0 255 0
0.081560 -0.001522 -0.058474 0 255 0
-0.009092 -0.103116 0.210198 0 255 0
-0.076764 -0.315423 0.119047 0 255 0
-0.001541 0.018453 0.257654 0 255 0
-0.014046 0.164597 0.304756 0 255 0
-0.121478 0.212297 0.091590 0 255 0
0.014426 0.255792 0.265158 0 255 0
-0.095155 0.076085 0.142077 0 255 0
-0.074497 -0.122997 -0.004523 0 255 0
0.059850 0.323600 -0.058196 0 255 0
-0.064660 -0.376127 0.108724 0 255 0
0.155300 0.100962 -0.113183 0 255 0
-0.137577 0.043939 -0.007151 0 255 0
0.175318 -0.271309 -0.047792 0 255 0
-0.114602 -0.209491 0.129163 0 255 0
-0.052896 0.348814 0.282969 0 255 0
-0.069027 0.378259 0.071764 0 255 0
-0.035817 -0.083244 0.224839 0 255 0
-0.088774 0.131664 -0.058402 0 255 0
0.098586 -0.057007 0.116263 0 255 0
0.100539 0.210999 -0.037422 0 255 0
-0.106241 -0.237474 0.144332 0 255 0
0.041618 -0.398262 0.185415 0 255 0
0.012042 -0.179066 0.223929 0 255 0
0.079381 0.221399 0.006554 0 255 0
-0.056035 0.181267 0.174327 0 255 0
-0.055517 -0.442965 0.123753 0 255 0
-0.024984 0.025987 0.186269 0 255 0
-0.183778 -0.370454 -0.012578 0 255 0
0.133632 0.210209 0.032431 0 255 0
-0.092924 -0.206129 0.200479 0 255 0
-0.117085 -0.110994 -0.052422 0 255 0
0.110669 0.050676 0.115978 0 255 0
-0.144190 -0.022427 0.120275 0 255 0
0.088902 0.176779 0.032190 0 255 0
-0.049839 -0.205143 0.175530 0 255 0
0.091706 0.118089 0.227145 0 255 0
-0.007743 -0.303666 0.207195 0 255 0
0.093160 0.049459 0.200535 0 255 0
-0.001051 -0.438231 0.065373 0 255 0
0.119139 0.140028 0.130762 0 255 0
0.067008 -0.335728 -0.052289 0 255 0
0.072895 0.216242 -0.020198 0 255 0
-0.115422 -0.026503 -0.114182 0 255 0
-0.058517 0.292694 0.069279 0 255 0
-0.064026 0.267784 0.001802 0 255 0
-0.001764 0.443515 0.099386 0 255 0
-0.093121 -0.338425 0.068012 0 255 0
-0.009288 -0.274857 0.184692 0 255 0
-0.127830 -0.188930 0.007202 0 255 0
-0.132848 -0.015278 0.033958 0 255 0
-0.039740 0.067310 -0.059259 0 255 0
-0.000727 0.019958 -0.055607 0 255 0
0.152938 -0.071390 0.118462 0 255 0
-0.025281 0.275527 0.178723 0 255 0
-0.192474 0.157921 0.140507 0 255 0
0.073419 -0.083503 0.142813 0 255 0
-0.158188 -0.197106 0.042155 0 255 0
-0.051493 -0.185575 0.173655 0 255 0
0.099555 0.199686 0.055914 0 255 0
-0.098562 0.248575 0.139629 0 255 0
0.113407 0.098256 0.022875 0 255 0
0.096969 0.068793 0.236286 0 255 0
0.098271 0.323521 0.103654 0 255 0
-0.087740 0.174207 0.201500 0 255 0
0.067371 0.323463 0.217919 0 255 0
0.085747 0.099416 0.068782 0 255 0
0.180471 -0.447067 -0.060514 0 255 0
0.070021 0.435959 0.108058 0 255 0
0.041213 0.439230 0.094424 0 255 0
-0.159524 0.230000 -0.052426 0 255 0
-0.137786 -0.267752 0.092089 0 255 0
-0.037391 -0.291220 0.130159 0 255 0
0.057788 0.334285 0.057961 0 255 0
0.189727 0.158461 0.123536 0 255 0
-0.017783 -0.189794 0.168972 0 255 0
0.084102 -0.165332 0.202869 0 255 0
0.111478 0.192111 0.299904 0 255 0
0.056202 -0.425424 0.180921 0 255 0
-0.017300 -0.087882 -0.072059 0 255 0
-0.071332 0.493738 -0.003325 0 255 0
-0.084362 -0.265548 0.153864 0 255 0
-0.089163 0.069623 0.228288 0 255 0
0.098362 -0.081504 0.276018 0 255 0
-0.120657 0.249432 -0.048790 0 255 0
-0.042034 -0.340746 -0.143976 0 255 0
-0.181075 0.052780 -0.043452 0 255 0
0.028379 0.032160 -0.116206 0 255 0
0.155049 0.151426 0.015200 0 255 0
0.055105 -0.281633 0.180263 0 255 0
-0.077991 0.221107 0.148357 0 255 0
0.093787 0.159858 0.045358 0 255 0
-0.117190 0.133256 0.135696 0 255 0
0.062237 -0.451435 0.391045 0 255 0
0.111960 0.220340 0.120052 0 255 0
-0.075589 -0.311230 0.181964 0 255 0
0.086291 -0.202265 -0.007827 0 255 0
-0.051436 -0.312470 0.176476 0 255 0
0.152677 0.109563 0.190350 0 255 0
0.150255 0.217235 0.051802 0 255 0
0.017060 0.016833 0.168568 0 255 0
-0.067385 -0.013050 -0.278675 0 255 0
0.068325 0.168648 0.134431 0 255 0
0.038741 0.288513 0.360678 0 255 0
-0.114225 0.181188 0.123172 0 255 0
0.136964 0.288633 0.005930 0 255 0
-0.101596 0.033110 0.134056 0 255 0
0.049795 0.211550 -0.032499 0 255 0
-0.160605 -0.483354 0.097313 0 255 0
0.093848 0.211463 0.119354 0 255 0
-0.074614 -0.401634 0.089647 0 255 0
0.149599 0.214846 0.140131 0 255 0
-0.151781 -0.186336 0.176864 0 255 0
-0.297168 -0.194663 0.270142 0 255 0
-0.022878 0.440158 0.093429 0 255 0
-0.033924 0.174605 0.179520 0 255 0
-0.062643 0.180368 0.161520 0 255 0
-0.004928 0.097964 0.193603 0 255 0
-0.076085 -0.305851 0.179330 0 255 0
0.142133 0.063666 0.072133 0 255 0
0.005622 0.181325 0.207253 0 255 0
-0.061074 -0.024210 -0.139873 0 255 0
-0.016367 0.205886 0.164757 0 255 0
0.144898 -0.079219 0.065030 0 255 0
0.110399 -0.291762 0.033479 0 255 0
0.006251 -0.111613 0.238670 0 255 0
0.052099 0.070274 0.297079 0 255 0
0.010210 0.117762 -0.261164 0 255 0
-0.084189 -0.066696 -0.058817 0 255 0
0.022691 0.322379 -0.026137 0 255 0
0.068534 0.299279 0.182032 0 255 0
-0.164132 -0.259666 0.204801 0 255 0
-0.013624 -0.441026 0.042082 0 255 0
0.036987 0.163873 0.287879 0 255 0
-0.098663 -0.140989 0.221466 0 255 0
0.170016 -0.047727 0.074125 0 255 0
-0.034485 0.393355 0.125940 0 255 0
-0.078030 -0.130295 0.106906 0 255 0
0.373213 -0.445320 0.052023 0 255 0
-0.107260 0.140536 0.227185 0 255 0
0.246236 0.008440 0.095154 0 255 0
-0.054613 0.219534 0.198710 0 255 0
0.024852 -0.409169 0.191506 0 255 0
-0.044181 0.305479 0.222865 0 255 0
-0.065554 0.417319 0.022109 0 255 0
0.104240 0.116533 0.002728 0 255 0
-0.045789 -0.302025 0.138968 0 255 0
0.081521 0.083778 0.157433 0 255 0
0.025654 -0.032510 -0.099069 0 255 0
0.106825 0.100224 0.138518 0 255 0
-0.146550 0.035958 0.016361 0 255 0
-0.001258 0.346069 0.211407 0 255 0
-0.141188 -0.329956 0.087748 0 255 0
-0.246146 -0.399350 0.124321 0 255 0
-0.028402 -0.017600 -0.083655 0 255 0
-0.265007 -0.031650 0.227236 0 255 0
-0.084024 -0.154548 0.013722 0 255 0
-0.184740 -0.434338 0.024357 0 255 0
-0.068189 -0.269774 0.194494 0 255 0
-0.070557 -0.174387 0.154378 0 255 0
-0.065092 0.330303 0.029979 0 255 0
-0.020496 -0.287072 -0.093028 0 255 0
-0.069006 -0.043755 0.204525 0 255 0
-0.017250 -0.361677 -0.123098 0 255 0
0.065806 0.190077 0.308201 0 255 0
-0.085886 -0.112927 0.176411 0 255 0
0.072557 0.302159 0.111295 0 255 0
-0.170875 -0.263420 0.061455 0 255 0
-0.030506 0.134135 -0.061406 0 255 0
0.036036 0.099670 -0.066426 0 255 0
0.030653 -0.206313 -0.111038 0 255 0
-0.070990 0.281173 0.025232 0 255 0
0.015723 -0.116833 0.202993 0 255 0
-0.015555 -0.369366 0.160600 0 255 0
0.046408 0.167523 -0.090723 0 255 0
0.130047 -0.328242 -0.024626 0 255 0
-0.377540 0.246964 -0.238896 0 255 0
0.105816 -0.312904 0.132128 0 255 0
0.425187 0.248661 -0.112642 0 255 0
-0.093791 0.264806 -0.023126 0 255 0
0.053414 0.064321 -0.101250 0 255 0
0.203835 -0.006170 -0.026036 0 255 0
0.094496 0.206498 0.095088 0 255 0
-0.177473 -0.172359 0.096685 0 255 0
0.194005 0.056934 0.178642 0 255 0
0.051997 0.148454 0.305669 0 255 0
-0.115859 0.109939 0.166197 0 255 0
0.230154 -0.371297 0.329419 0 255 0
0.086977 -0.255715 0.220926 0 255 0
-0.113881 0.169333 0.181409 0 255 0
0.128871 0.128329 0.068169 0 255 0
-0.066322 -0.379303 0.156040 0 255 0
0.141971 -0.100495 0.075546 0 255 0
0.233469 0.268594 -0.380270 0 255 0
0.125595 -0.241818 0.028521 0 255 0
0.026257 -0.181906 0.234165 0 255 0
-0.042442 -0.199171 -0.046795 0 255 0
0.020716 0.262834 -0.101107 0 255 0
-0.024196 0.158359 0.181033 0 255 0
-0.091572 0.204202 0.190337 0 255 0
0.107676 0.204445 0.102796 0 255 0
0.072320 0.464600 0.048601 0 255 0
-0.067493 0.428629 0.036256 0 255 0
0.139978 0.067441 0.289044 0 255 0
-0.108566 -0.211028 0.126801 0 255 0
0.044160 -0.329994 0.240412 0 255 0
-0.042351 0.066575 0.201898 0 255 0
0.080884 -0.168916 -0.039463 0 255 0
-0.025260 -0.384074 0.158427 0 255 0
0.148682 -0.277748 0.089549 0 255 0
-0.084311 -0.155876 -0.001742 0 255 0
-0.137818 -0.066160 0.071204 0 255 0
0.060179 0.097521 -0.100382 0 255 0
0.012118 -0.235372 0.181239 0 255 0
-0.039313 0.248789 -0.069887 0 255 0
0.074085 -0.012136 0.281462 0 255 0
0.118123 -0.123945 0.117667 0 255 0
0.407983 0.143703 -0.127010 0 255 0
0.081093 -0.018603 0.199858 0 255 0
-0.063051 -0.155086 0.193736 0 255 0
0.095560 -0.423096 0.067458 0 255 0
0.103165 -0.091939 0.156888 0 255 0
-0.191601 -0.394387 0.069580 0 255 0
0.049195 0.128315 0.161122 0 255 0
0.048472 0.207968 -0.092278 0 255 0
0.088995 0.118697 0.168311 0 255 0
-0.058784 -0.415086 0.085244 0 255 0
-0.004232 -0.360893 0.175574 0 255 0
-0.000404 -0.271682 -0.087668 0 255 0
-0.146845 0.153170 0.180785 0 255 0
0.101428 0.243169 0.052216 0 255 0
-0.091716 0.044168 -0.009801 0 255 0
-0.103097 -0.177813 0.183511 0 255 0
-0.149417 0.000843 0.016414 0 255 0
-0.016134 0.114257 -0.066703 0 255 0
-0.093519 0.057013 0.173229 0 255 0
-0.050100 0.142617 -0.046627 0 255 0
0.134205 0.181452 0.075262 0 255 0
-0.026947 -0.409044 0.008659 0 255 0
-0.050195 -0.309837 0.146321 0 255 0
-0.061255 -0.271822 0.202831 0 255 0
-0.050540 -0.113013 0.207849 0 255 0
-0.003120 -0.354716 0.184235 0 255 0
-0.148265 -0.231890 0.152400 0 255 0
-0.059066 0.170605 -0.115006 0 255 0
-0.035742 0.344270 0.161262 0 255 0
-0.030661 -0.454470 -0.029665 0 255 0
0.109541 -0.159311 0.008686 0 255 0
0.209000 0.073751 0.139500 0 255 0
0.097435 0.153403 0.020867 0 255 0
0.108747 0.186688 0.114084 0 255 0
0.048774 -0.470945 0.179259 0 255 0
0.035914 -0.429085 0.184779 0 255 0
0.123561 0.067104 0.142844 0 255 0
-0.156599 -0.288139 0.082213 0 255 0
0.323720 -0.067515 -0.034437 0 255 0
0.225707 -0.097893 0.042421 0 255 0
0.044747 0.038039 0.177235 0 255 0
-0.061061 -0.204228 0.206655 0 255 0
0.361732 0.472434 -0.188680 0 255 0
-0.029473 0.365157 0.109258 0 255 0
0.108969 -0.267437 0.013675 0 255 0
-0.091456 0.314038 0.032736 0 255 0
-0.020393 -0.254415 0.162957 0 255 0
-0.108443 0.008985 0.016626 0 255 0
-0.017814 -0.476380 0.209879 0 255 0
0.035496 -0.349293 0.245324 0 255 0
-0.118447 0.053443 0.088506 0 255 0
0.122377 -0.349200 -0.031456 0 255 0
-0.164017 0.409590 0.237102 0 255 0
-0.011812 0.349652 0.143289 0 255 0
-0.079220 0.436629 0.055975 0 255 0
0.024095 0.260412 0.241660 0 255 0
-0.163029 -0.453022 0.101868 0 255 0
-0.097330 -0.351072 0.174846 0 255 0
0.170461 -0.419889 -0.045521 0 255 0
0.104701 -0.479781 0.269237 0 255 0
0.130462 0.174975 -0.040221 0 255 0
-0.062555 0.142617 0.147460 0 255 0
-0.177245 -0.097189 0.144578 0 255 0
-0.191902 -0.071098 0.130335 0 255 0
-0.077851 -0.387411 0.109282 0 255 0
-0.168269 -0.098135 0.111588 0 255 0
-0.010845 0.130684 -0.251149 0 255 0
-0.045909 -0.225265 -0.084196 0 255 0
-0.189119 -0.022743 0.014160 0 255 0
-0.107575 -0.166316 0.161112 0 255 0
0.101671 -0.284216 -0.013434 0 255 0
-0.068970 0.263288 0.189190 0 255 0
0.044968 0.303182 0.078419 0 255 0
-0.099188 -0.322272 -0.032850 0 255 0
0.109631 0.234156 0.133785 0 255 0
0.296532 -0.404953 0.371077 0 255 0
-0.019228 0.087898 0.332095 0 255 0
-0.016719 -0.470024 0.142424 0 255 0
-0.443795 -0.419186 0.176269 0 255 0
-0.038411 -0.115068 0.241742 0 255 0
-0.045231 -0.349085 0.259668 0 255 0
0.023159 -0.305099 -0.092791 0 255 0
0.082970 -0.197387 0.160863 0 255 0
0.153551 0.053434 0.160037 0 255 0
-0.236739 -0.337813 -0.030255 0 255 0
-0.154498 0.278930 -0.051282 0 255 0
-0.051710 -0.281613 0.143612 0 255 0
-0.106678 0.345197 0.013269 0 255 0
-0.066061 -0.296864 0.170813 0 255 0
0.060871 0.116378 0.147066 0 255 0
0.078227 0.285656 0.159221 0 255 0
-0.076804 0.044973 0.159193 0 255 0
-0.146129 -0.363228 0.067438 0 255 0
0.116408 -0.312625 0.092715 0 255 0
0.039375 0.352678 0.170542 0 255 0
-0.054017 -0.047678 -0.030656 0 255 0
0.128607 -0.392837 0.098258 0 255 0
0.101977 0.124490 0.026979 0 255 0
-0.008355 0.200688 0.182932 0 255 0
-0.006787 0.184802 0.214599 0 255 0
0.045075 -0.245066 -0.111611 0 255 0
-0.358234 0.270114 0.105152 0 255 0
-0.163668 0.233454 -0.010724 0 255 0
0.032138 -0.267543 0.154936 0 255 0
0.061112 0.246765 0.154627 0 255 0
-0.152559 -0.146961 0.113626 0 255 0
-0.007778 0.283425 0.496372 0 255 0
0.186733 -0.311904 0.104041 0 255 0
-0.062329 -0.406942 0.115901 0 255 0
0.140365 0.017051 0.124848 0 255 0
0.028795 0.240976 -0.066608 0 255 0
-0.141235 0.181120 0.083783 0 255 0
0.069220 0.373318 0.150410 0 255 0
0.069987 -0.073000 -0.033845 0 255 0
-0.136824 -0.419405 0.123191 0 255 0
-0.020916 0.304226 0.092592 0 255 0
-0.080914 -0.001843 -0.022105 0 255 0
-0.156172 -0.242229 0.006925 0 255 0
0.042077 0.033060 0.189635 0 255 0
0.021929 -0.115774 0.203627 0 255 0
-0.181199 -0.268757 0.072100 0 255 0
-0.071661 -0.053283 0.164771 0 255 0
0.052078 0.165532 0.259900 0 255 0
-0.108548 -0.466463 0.027916 0 255 0
-0.149173 0.225683 -0.054235 0 255 0
0.190237 0.058771 -0.024854 0 255 0
-0.079415 0.137783 -0.023239 0 255 0
-0.095219 -0.000567 0.221959 0 255 0
0.344162 -0.407298 0.338340 0 255 0
0.026396 0.021469 -0.279652 0 255 0
0.154618 -0.164232 0.131361 0 255 0
-0.414250 0.302572 0.020044 0 255 0
-0.413250 0.423804 0.456236 0 255 0
0.040601 0.409264 -0.138895 0 255 0
-0.148661 0.343364 0.154400 0 255 0
-0.063056 -0.283669 -0.043803 0 255 0
0.127940 -0.023432 0.063091 0 255 0
-0.054321 0.113687 0.166035 0 255 0
-0.047248 0.340913 0.008732 0 255 0
0.080308 -0.044500 0.162732 0 255 0
-0.114130 -0.143403 0.156453 0 255 0
-0.068986 -0.307207 0.195613 0 255 0
-0.043578 0.143287 -0.051016 0 255 0
-0.143673 -0.324062 0.087451 0 255 0
0.101477 0.245754 -0.106123 0 255 0
-0.040208 0.295006 0.095538 0 255 0
-0.076689 -0.196220 0.201710 0 255 0
0.111981 0.058214 0.221177 0 255 0
0.025313 -0.175151 -0.088150 0 255 0
-0.042951 0.090179 -0.065848 0 255 0
0.003655 0.390200 0.001885 0 255 0
-0.184059 -0.224040 0.132276 0 255 0
0.008731 -0.210844 -0.161603 0 255 0
0.144984 -0.036156 0.077096 0 255 0
0.029442 0.031134 -0.088234 0 255 0
0.159299 -0.242048 0.145078 0 255 0
0.000018 0.026634 0.178195 0 255 0
0.137907 0.025872 0.005343 0 255 0
-0.029746 0.189419 -0.115777 0 255 0
0.089728 0.189918 0.108752 0 255 0
-0.061806 0.108451 -0.094629 0 255 0
0.081868 -0.290654 0.128487 0 255 0
-0.133355 -0.097972 0.167502 0 255 0
-0.002177 0.384631 0.245103 0 255 0
-0.197647 -0.329815 0.079799 0 255 0
-0.148452 0.091254 0.143660 0 255 0
0.150849 -0.364243 -0.008745 0 255 0
0.101270 0.238958 0.009486 0 255 0
-0.119165 0.164523 0.143010 0 255 0
0.159822 -0.086346 -0.135239 0 255 0
0.101646 -0.327067 0.145364 0 255 0
0.184721 0.197545 -0.037057 0 255 0
-0.097833 0.140985 0.185694 0 255 0
0.031613 0.304687 -0.134352 0 255 0
0.090627 -0.289468 0.046935 0 255 0
0.029365 0.048932 0.211221 0 255 0
-0.083505 -0.279345 0.200682 0 255 0
0.121762 0.220995 0.019756 0 255 0
0.115515 0.298589 -0.026942 0 255 0
-0.163670 -0.294451 0.104512 0 255 0
0.018104 0.057212 0.189755 0 255 0
0.087207 -0.124784 0.169908 0 255 0
0.083763 -0.330149 0.108532 0 255 0
-0.056570 -0.159173 0.285960 0 255 0
0.170537 -0.360302 0.078134 0 255 0
0.126941 -0.176361 -0.331789 0 255 0
0.077785 -0.361849 -0.091275 0 255 0
-0.092054 0.136298 -0.071190 0 255 0
-0.087375 0.064724 -0.049337 0 255 0
0.103673 0.096319 0.229503 0 255 0
-0.033960 0.375489 -0.039612 0 255 0
0.142420 -0.181656 0.119541 0 255 0
0.140408 0.157769 0.092267 0 255 0
0.032319 0.382440 0.131434 0 255 0
0.157870 -0.100391 0.141434 0 255 0
-0.042706 0.350490 0.228113 0 255 0
0.039101 0.078657 -0.107874 0 255 0
-0.148604 0.089210 0.007649 0 255 0
0.006361 0.349730 0.166962 0 255 0
-0.071478 0.115541 0.208957 0 255 0
0.119547 -0.444226 0.007072 0 255 0
-0.194825 -0.267703 0.098140 0 255 0
-0.015412 0.061615 -0.192041 0 255 0
0.098946 0.020958 -0.046029 0 255 0
-0.078953 0.097517 -0.024379 0 255 0
-0.207203 0.208626 0.193213 0 255 0
-0.104366 0.173099 -0.020303 0 255 0
0.057802 -0.270190 0.155630 0 255 0
0.043173 0.310190 0.050924 0 255 0
0.066625 0.207439 -0.038142 0 255 0
-0.089681 -0.233205 0.180941 0 255 0
-0.067902 -0.107054 0.150823 0 255 0
-0.081790 -0.327689 0.007645 0 255 0
0.106985 -0.023027 -0.039678 0 255 0
-0.052806 0.021238 0.216434 0 255 0
-0.046796 -0.088065 0.197072 0 255 0
-0.021288 0.157756 0.165080 0 255 0
0.085254 -0.261942 -0.035417 0 255 0
-0.029338 -0.411592 0.011641 0 255 0
0.206209 -0.362583 0.100037 0 255 0
-0.040395 -0.455280 0.139460 0 255 0
0.105538 -0.300221 0.034540 0 255 0
0.013156 -0.191498 -0.044073 0 255 0
-0.092247 -0.416354 0.003169 0 255 0
-0.078870 -0.381984 0.120565 0 255 0
-0.001484 0.391585 -0.031242 0 255 0
-0.034812 0.169464 -0.086562 0 255 0
0.136595 -0.235353 0.008829 0 255 0
0.035218 -0.457004 0.003645 0 255 0
0.096385 0.029869 0.148656 0 255 0
-0.033090 0.301857 0.099137 0 255 0
0.166909 -0.297856 0.097067 0 255 0
0.130055 -0.192683 0.168031 0 255 0
-0.061496 0.036193 -0.044872 0 255 0
0.042097 0.126717 -0.073156 0 255 0
0.017276 0.153625 0.164455 0 255 0
-0.141601 -0.114218 0.128595 0 255 0
-0.076668 -0.122683 0.130417 0 255 0
-0.473648 0.341778 0.248957 0 255 0
-0.078399 0.455799 0.063881 0 255 0
0.044550 0.288126 -0.007148 0 255 0
0.102309 0.030469 -0.043401 0 255 0
0.127690 0.084611 0.152695 0 255 0
0.053542 0.359790 0.053535 0 255 0
-0.098785 0.071438 -0.345898 0 255 0
-0.008988 -0.362377 0.204700 0 255 0
-0.041589 -0.125716 0.164128 0 255 0
-0.028267 -0.300716 0.180233 0 255 0
-0.050541 0.143983 0.246621 0 255 0
-0.027772 -0.198280 0.179294 0 255 0
-0.033041 0.008331 0.173719 0 255 0
0.044125 -0.066190 0.175085 0 255 0
-0.127608 -0.206360 0.127282 0 255 0
-0.071972 0.125042 -0.066227 0 255 0
-0.048031 -0.026879 0.227936 0 255 0
0.013317 0.227254 0.289182 0 255 0
-0.179510 -0.125080 0.057012 0 255 0
-0.114820 -0.268057 0.148328 0 255 0
0.028281 0.205290 -0.113699 0 255 0
0.091685 -0.324924 0.275557 0 255 0
0.059993 0.072978 -0.188868 0 255 0
0.115032 -0.281710 0.126560 0 255 0
-0.062028 0.109849 0.164131 0 255 0
0.114927 0.071666 0.150745 0 255 0
-0.010766 0.226690 0.353366 0 255 0
0.090144 0.185911 0.122676 0 255 0
-0.141843 -0.134088 0.143396 0 255 0
0.136327 0.079602 0.253302 0 255 0
-0.041694 -0.359256 0.123409 0 255 0
-0.166769 -0.427702 0.145640 0 255 0
0.007221 -0.051034 0.239514 0 255 0
0.080937 -0.287491 0.115641 0 255 0
-0.036795 0.141564 0.337078 0 255 0
0.050474 -0.285954 0.220362 0 255 0
-0.168433 0.222691 0.266961 0 255 0
-0.012028 -0.019672 -0.073362 0 255 0
-0.128347 -0.423252 -0.036602 0 255 0
-0.011298 0.131758 -0.240193 0 255 0
0.063157 -0.324160 -0.077491 0 255 0
0.114626 0.139650 -0.225659 0 255 0
-0.015794 0.001714 -0.078746 0 255 0
0.085855 0.168438 0.264739 0 255 0
0.146707 0.193911 0.040922 0 255 0
-0.071086 0.227767 -0.012177 0 255 0
0.108525 0.242858 0.200110 0 255 0
0.173618 0.017769 0.124078 0 255 0
0.107502 0.080398 0.182929 0 255 0
0.052352 0.310853 -0.128493 0 255 0
-0.137948 0.244782 0.080096 0 255 0
0.094112 0.133975 0.294281 0 255 0
0.014736 -0.004713 -0.072684 0 255 0
-0.057357 0.269871 0.017209 0 255 0
0.152240 0.284722 0.147651 0 255 0
0.058541 -0.156739 0.178147 0 255 0
0.158494 -0.144928 -0.021195 0 255 0
-0.053691 -0.418502 -0.087805 0 255 0
0.212346 0.011413 0.122562 0 255 0
-0.015944 0.092125 0.217836 0 255 0
0.205877 -0.460774 0.088440 0 255 0
-0.048166 0.109114 0.144774 0 255 0
0.048868 -0.458496 0.044112 0 255 0
0.368925 0.142261 -0.329087 0 255 0
-0.439977 -0.046558 0.236910 0 255 0
-0.068980 -0.133235 0.170031 0 255 0
0.112988 0.261806 0.220653 0 255 0
0.035124 -0.259261 0.184305 0 255 0
0.024274 0.334070 0.107176 0 255 0
-0.140252 -0.342355 0.088384 0 255 0
-0.005409 -0.088802 -0.055994 0 255 0
0.037472 -0.181246 -0.055729 0 255 0
-0.105068 0.275836 -0.090153 0 255 0
-0.009179 0.132244 -0.303741 0 255 0
0.120081 -0.185080 0.041479 0 255 0
-0.099123 0.140225 -0.191724 0 255 0
0.132090 -0.092758 0.094159 0 255 0
-0.139976 -0.436129 0.108202 0 255 0
-0.049968 -0.363008 0.111442 0 255 0
-0.037456 -0.295899 -0.035653 0 255 0
0.051319 0.384225 0.157372 0 255 0
0.054574 -0.292736 -0.059102 0 255 0
0.112047 0.370956 0.123182 0 255 0
-0.096736 0.009399 0.207210 0 255 0
-0.059376 -0.445599 0.169095 0 255 0
0.107713 0.074950 0.050536 0 255 0
0.152600 -0.246936 0.083837 0 255 0
0.251840 -0.165820 0.061677 0 255 0
-0.118633 -0.019405 0.019325 0 255 0
0.177233 0.415010 -0.030431 0 255 0
-0.126183 -0.476262 0.190676 0 255 0
0.141800 0.151837 -0.009909 0 255 0
-0.149231 -0.020666 0.110050 0 255 0
0.304389 -0.306431 0.063567 0 255 0
0.032394 -0.001261 -0.066509 0 255 0
-0.232574 0.118254 0.497700 0 255 0
-0.039534 0.287637 0.040461 0 255 0
0.031206 0.189047 0.270848 0 255 0
0.067510 0.241155 0.157771 0 255 0
-0.085805 -0.431992 0.054238 0 255 0
-0.120869 0.234549 0.081084 0 255 0
0.110140 -0.124653 0.147333 0 255 0
-0.393216 -0.277627 -0.191838 0 255 0
-0.132894 -0.263719 0.118332 0 255 0
0.150632 -0.200215 0.201909 0 255 0
0.105638 -0.064954 0.172000 0 255 0
-0.037460 -0.264503 0.218893 0 255 0
-0.080815 -0.399428 0.100574 0 255 0
-0.038422 0.016149 0.302962 0 255 0
-0.093804 0.388508 0.155776 0 255 0
-0.084441 -0.536927 0.010317 0 255 0
-0.130301 -0.418152 0.152311 0 255 0
0.116735 0.062658 0.136730 0 255 0
0.154366 -0.135651 0.194891 0 255 0
-0.041608 0.442778 0.088221 0 255 0
0.076630 -0.451111 0.232257 0 255 0
-0.114213 0.067759 0.131142 0 255 0
-0.099998 0.022524 0.115985 0 255 0
0.104959 -0.224734 0.029240 0 255 0
-0.052060 -0.183422 0.175808 0 255 0
-0.115615 -0.439952 0.104788 0 255 0
0.135458 -0.361630 0.150896 0 255 0
-0.094642 0.006446 0.172646 0 255 0
-0.035714 -0.417850 -0.368761 0 255 0
0.109902 -0.265072 -0.103898 0 255 0
-0.129629 -0.105811 -0.010984 0 255 0
0.104536 0.188949 0.098431 0 255 0
-0.060349 0.450402 0.004341 0 255 0
0.094580 -0.034213 0.144113 0 255 0
0.082762 -0.134577 0.177812 0 255 0
-0.040507 -0.165951 -0.046264 0 255 0
-0.141680 0.135459 0.159973 0 255 0
-0.103366 -0.300094 -0.005814 0 255 0
0.186520 0.088243 0.086910 0 255 0
0.368834 -0.192035 -0.089347 0 255 0
-0.140945 0.252870 0.176244 0 255 0
-0.102903 0.211019 -0.013293 0 255 0
0.149005 -0.106796 0.110493 0 255 0
-0.294251 -0.406212 0.403548 0 255 0
-0.093343 0.437520 -0.019225 0 255 0
0.025592 0.149856 0.291318 0 255 0
0.035495 -0.382985 0.188450 0 255 0
-0.176491 0.211821 0.026517 0 255 0
-0.192260 -0.160531 -0.001255 0 255 0
-0.007089 -0.434273 0.174819 0 255 0
0.010210 0.363766 0.466098 0 255 0
0.008292 0.202642 0.357544 0 255 0
-0.141661 0.118875 0.141371 0 255 0
0.151084 0.074546 -0.006646 0 255 0
0.039508 0.127076 -0.157829 0 255 0
-0.033443 0.257794 0.182728 0 255 0
-0.159457 0.060673 0.126510 0 255 0
0.091140 0.181092 0.210088 0 255 0
-0.105729 0.327110 0.049761 0 255 0
-0.215268 0.023815 0.032874 0 255 0
-0.075569 0.048473 0.152506 0 255 0
0.111518 -0.016571 0.008243 0 255 0
-0.034896 -0.148553 -0.050318 0 255 0
0.050466 -0.420187 -0.058304 0 255 0
-0.112347 0.147388 0.195096 0 255 0
-0.062981 0.126875 0.135741 0 255 0
-0.082710 -0.166033 0.241211 0 255 0
-0.125137 -0.468424 -0.014995 0 255 0
-0.115211 0.155132 0.163624 0 255 0
0.118401 -0.003740 -0.060449 0 255 0
0.059131 -0.218129 -0.034208 0 255 0
-0.067561 -0.369844 0.082211 0 255 0
0.132611 0.107031 0.267531 0 255 0
0.096587 -0.370171 0.144814 0 255 0
-0.297736 0.375893 -0.428428 0 255 0
0.140878 0.276747 -0.015538 0 255 0
-0.111464 0.359854 0.042638 0 255 0
-0.043985 0.100084 -0.104660 0 255 0
-0.116916 0.007935 0.033727 0 255 0
-0.495867 0.290568 -0.054417 0 255 0
-0.107419 -0.443734 0.039797 0 255 0
0.073985 0.083869 0.194398 0 255 0
-0.038613 0.024187 -0.157925 0 255 0
-0.114252 -0.184296 0.141763 0 255 0
0.131240 -0.091565 0.151688 0 255 0
-0.051070 -0.147827 0.157217 0 255 0
0.104382 -0.209236 0.056880 0 255 0
-0.046729 0.175561 0.305828 0 255 0
0.126037 -0.197135 0.109008 0 255 0
0.185483 0.013161 0.002318 0 255 0
0.053971 0.061570 -0.371425 0 255 0
-0.118180 0.207827 0.115538 0 255 0
0.018563 0.103376 0.240175 0 255 0
0.117023 0.311070 0.063378 0 255 0
-0.096791 -0.170680 0.018910 0 255 0
-0.122617 0.223556 0.203526 0 255 0
0.215022 0.047868 -0.053468 0 255 0
0.132263 0.064380 0.007855 0 255 0
0.007085 0.460365 0.128772 0 255 0
0.128940 -0.101253 0.202815 0 255 0
-0.066392 0.180121 0.219956 0 255 0
0.075221 0.138428 0.285401 0 255 0
0.001588 -0.132321 0.220756 0 255 0
-0.487069 0.192561 -0.190749 0 255 0
-0.053559 -0.211215 0.219260 0 255 0
-0.033506 0.280615 -0.083821 0 255 0
0.207619 0.026109 0.058325 0 255 0
0.006342 0.285895 -0.237835 0 255 0
-0.037992 -0.101041 0.181904 0 255 0
-0.107078 -0.259329 -0.019975 0 255 0
-0.086075 -0.325403 0.011891 0 255 0
0.094485 0.124753 0.071812 0 255 0
-0.087963 -0.460505 0.166312 0 255 0
0.007085 -0.272673 0.160998 0 255 0
-0.122846 0.172261 -0.025817 0 255 0
-0.009156 0.104445 0.156795 0 255 0
-0.090039 -0.188568 0.137305 0 255 0
-0.022765 0.122792 0.181368 0 255 0
-0.018464 -0.253151 0.174902 0 255 0
-0.028902 0.082055 0.198887 0 255 0
-0.050912 0.240292 0.189347 0 255 0
-0.118995 0.106749 0.115338 0 255 0
-0.122964 0.217334 0.037658 0 255 0
-0.019132 0.152204 -0.176922 0 255 0
-0.121556 -0.223520 0.100239 0 255 0
-0.179807 -0.301236 0.075923 0 255 0
-0.089348 0.082215 0.127269 0 255 0
-0.031155 -0.178731 0.272083 0 255 0
0.021878 -0.093727 0.203242 0 255 0
-0.063325 0.125348 -0.079595 0 255 0
0.145983 -0.335146 0.160921 0 255 0
-0.107270 0.393934 0.128010 0 255 0
-0.199236 -0.390567 0.087807 0 255 0
0.435574 -0.138390 -0.461519 0 255 0
-0.117598 -0.227704 0.001733 0 255 0
-0.002196 -0.278470 0.165298 0 255 0
0.028492 -0.356602 -0.101608 0 255 0
0.152252 0.132929 0.270872 0 255 0
0.072415 0.278865 0.297737 0 255 0
-0.092060 -0.154060 0.130607 0 255 0
0.144933 0.226321 0.049563 0 255 0
-0.011179 -0.229084 0.204148 0 255 0
-0.133562 -0.097584 0.122401 0 255 0
-0.037874 0.141307 -0.205209 0 255 0
0.108319 0.207031 0.173382 0 255 0
0.071265 -0.363987 -0.021576 0 255 0
-0.095548 0.210903 0.100808 0 255 0
0.045633 0.013338 0.187166 0 255 0
-0.131031 0.292689 0.095982 0 255 0
0.154184 -0.032669 0.161425 0 255 0
-0.035462 -0.409675 0.197259 0 255 0
-0.135787 -0.416066 0.192414 0 255 0
0.023173 0.424309 -0.029719 0 255 0
-0.133113 0.199978 0.021989 0 255 0
0.045235 -0.104779 0.210724 0 255 0
0.088189 -0.413703 0.127389 0 255 0
0.126726 0.174782 0.222179 0 255 0
0.138673 0.185958 0.067303 0 255 0
0.173974 -0.303344 0.222630 0 255 0
0.189936 -0.068407 0.107373 0 255 0
0.089956 -0.356423 -0.061130 0 255 0
-0.154598 -0.059545 -0.007431 0 255 0
-0.127960 0.246681 -0.045869 0 255 0
-0.032789 0.063133 0.185490 0 255 0
0.007459 -0.208043 0.183034 0 255 0
0.200771 -0.398871 0.101702 0 255 0
0.149089 -0.167919 0.114231 0 255 0
-0.002702 0.360932 -0.015548 0 255 0
0.145248 0.184604 0.127312 0 255 0
-0.045438 -0.021470 0.179458 0 255 0
0.061272 0.275132 -0.013711 0 255 0
0.056520 0.345308 -0.001473 0 255 0
0.084484 0.160747 0.163049 0 255 0
-0.225127 -0.428816 0.094060 0 255 0
-0.063362 -0.263013 0.180132 0 255 0
0.029269 -0.065165 0.191967 0 255 0
0.032507 0.248437 -0.103167 0 255 0
-0.159289 -0.278436 0.097487 0 255 0
-0.047697 -0.331032 0.215124 0 255 0
0.082825 0.152860 -0.134483 0 255 0
0.063952 0.138364 0.231080 0 255 0
0.106825 0.117593 0.121619 0 255 0
0.054257 0.052991 -0.122128 0 255 0
0.045854 0.335825 -0.053876 0 255 0
0.099205 -0.036498 0.285128 0 255 0
-0.040429 0.278860 -0.065720 0 255 0
-0.094934 0.097947 -0.004224 0 255 0
0.211813 -0.396959 0.020237 0 255 0
-0.164333 0.108950 0.264166 0 255 0
-0.078218 -0.387489 0.100641 0 255 0
-0.059228 0.383880 0.128422 0 255 0
0.000296 -0.230974 -0.048328 0 255 0
0.050432 0.205598 0.162296 0 255 0
-0.121373 -0.240980 0.109477 0 255 0
-0.043805 0.094776 -0.144280 0 255 0
-0.080686 0.258816 -0.023828 0 255 0
-0.106990 -0.058234 0.071222 0 255 0
0.258637 -0.311979 -0.186590 0 255 0
0.110104 -0.024013 0.001515 0 255 0
0.053435 0.098766 0.214880 0 255 0
0.163559 0.059359 0.221534 0 255 0
-0.054504 0.295178 0.030533 0 255 0
0.015803 -0.033451 -0.075336 0 255 0
0.029545 0.050609 0.184451 0 255 0
-0.064023 -0.306581 -0.030698 0 255 0
-0.118385 -0.499206 0.022497 0 255 0
0.080409 -0.214174 0.182469 0 255 0
0.082827 0.258122 0.024905 0 255 0
0.169639 -0.186760 0.037432 0 255 0
-0.226349 -0.417422 0.059906 0 255 0
-0.012600 -0.067303 -0.085864 0 255 0
-0.091104 -0.339293 0.149673 0 255 0
-0.145506 -0.436272 0.026091 0 255 0
0.113328 0.128595 -0.018056 0 255 0
0.082697 0.343850 0.089382 0 255 0
0.036296 0.002079 0.227151 0 255 0
-0.189497 -0.159105 0.055831 0 255 0
-0.075029 0.430908 0.077591 0 255 0
-0.111895 -0.411640 0.126319 0 255 0
0.051904 0.176733 -0.054894 0 255 0
0.187949 0.179567 0.056499 0 255 0
-0.062386 -0.428422 0.176651 0 255 0
-0.144662 -0.245237 0.103504 0 255 0
0.043267 0.108734 -0.149512 0 255 0
-0.113785 0.217091 0.155056 0 255 0
0.160047 -0.135905 0.052869 0 255 0
-0.109628 0.176855 0.203989 0 255 0
0.035892 -0.130817 0.180479 0 255 0
-0.112270 -0.077662 0.059358 0 255 0
-0.064821 0.267569 -0.095603 0 255 0
-0.205616 0.255754 -0.021796 0 255 0
0.046678 -0.222653 0.160268 0 255 0
-0.096767 0.032068 0.140631 0 255 0
-0.072260 0.239819 -0.015366 0 255 0
-0.041135 0.168785 -0.261569 0 255 0
0.107104 0.271466 0.103457 0 255 0
0.021896 0.182181 -0.222063 0 255 0
0.166417 -0.380090 -0.050157 0 255 0
-0.124051 -0.068006 0.279649 0 255 0
-0.436921 -0.368521 -0.456632 0 255 0
-0.439691 -0.093953 0.092833 0 255 0
0.114379 -0.417475 -0.067505 0 255 0
-0.078230 0.112651 0.172430 0 255 0
0.169638 -0.172803 0.150014 0 255 0
-0.088286 0.277497 0.039382 0 255 0
0.073063 -0.431140 0.211438 0 255 0
0.265664 0.037471 0.005450 0 255 0
-0.112557 -0.480494 0.000843 0 255 0
0.327265 0.255347 0.108461 0 255 0
-0.043420 -0.258917 0.246336 0 255 0
-0.095848 0.114678 -0.083299 0 255 0
0.115489 0.132307 0.061256 0 255 0
-0.232576 0.114372 -0.297873 0 255 0
-0.029470 0.325774 -0.001667 0 255 0
-0.029426 -0.394991 0.159522 0 255 0
0.007136 0.187851 -0.125918 0 255 0
-0.121194 -0.408585 -0.036025 0 255 0
-0.104220 -0.213779 0.151997 0 255 0
-0.173237 -0.054752 0.093496 0 255 0
0.196700 0.198121 -0.087123 0 255 0
-0.060873 0.145924 0.153578 0 255 0
-0.101326 0.321360 0.115867 0 255 0
0.114548 -0.167611 0.116153 0 255 0
0.084249 -0.256303 0.015043 0 255 0
-0.116758 0.013164 0.027891 0 255 0
0.126328 0.268817 0.143368 0 255 0
-0.141774 0.356811 0.086298 0 255 0
0.081642 0.162917 0.219641 0 255 0
-0.070962 0.162196 -0.085218 0 255 0
-0.034075 -0.255182 -0.057796 0 255 0
-0.128268 -0.033145 0.111068 0 255 0
0.449441 -0.068221 0.486536 0 255 0
-0.164876 -0.133778 0.068325 0 255 0
-0.105432 0.078576 0.117400 0 255 0
0.457730 0.071072 -0.221037 0 255 0
0.096994 0.173614 0.101709 0 255 0
-0.124996 -0.330938 0.117727 0 255 0
0.234862 0.200887 0.114572 0 255 0
-0.428333 -0.447265 -0.034326 0 255 0
0.135553 -0.351418 0.042419 0 255 0
-0.160992 -0.250612 0.191399 0 255 0
-0.044280 0.130199 0.196241 0 255 0
-0.075439 -0.320948 -0.018226 0 255 0
0.041823 -0.351758 0.151784 0 255 0
0.005695 0.139754 0.266803 0 255 0
-0.132018 -0.275386 0.095453 0 255 0
-0.087095 0.085982 -0.238702 0 255 0
-0.122980 -0.262850 0.117557 0 255 0
0.072828 -0.103269 -0.044125 0 255 0
-0.083806 -0.328709 0.133245 0 255 0
-0.053988 -0.363827 -0.018079 0 255 0
-0.011895 -0.581740 0.162871 0 255 0
0.066630 -0.191844 -0.031256 0 255 0
-0.079052 0.216001 -0.330579 0 255 0
0.001312 -0.430898 0.209230 0 255 0
-0.046245 0.350452 0.129467 0 255 0
0.072442 -0.336840 0.133114 0 255 0
-0.118291 -0.291437 -0.021682 0 255 0
-0.151761 -0.508983 0.170704 0 255 0
0.077972 0.164357 0.230623 0 255 0
-0.071981 0.249710 -0.015423 0 255 0
0.158718 -0.090128 0.049995 0 255 0
-0.111143 -0.350930 -0.017202 0 255 0
0.037396 -0.005624 0.235783 0 255 0
0.119348 -0.429717 0.059173 0 255 0
-0.021995 -0.108887 0.245246 0 255 0
0.106175 0.129665 0.177560 0 255 0
-0.105139 -0.462759 0.174266 0 255 0
-0.147436 0.265775 0.052400 0 255 0
0.073805 0.166847 0.202230 0 255 0
-0.093459 -0.147651 0.141427 0 255 0
0.143192 -0.128288 -0.029191 0 255 0
-0.162893 0.270199 0.272426 0 255 0
-0.053576 -0.221291 0.234429 0 255 0
0.164237 0.297389 0.008461 0 255 0
0.174577 0.153110 0.034695 0 255 0
-0.098983 0.366408 0.006415 0 255 0
0.013544 -0.194911 0.194044 0 255 0
-0.164878 0.055110 0.199275 0 255 0
-0.099836 0.164571 -0.130325 0 255 0
-0.137177 0.088168 0.074909 0 255 0
-0.122522 -0.180102 0.120891 0 255 0
0.196335 -0.042977 0.042224 0 255 0
-0.142856 -0.395043 0.045491 0 255 0
-0.076055 -0.295353 0.171748 0 255 0
-0.100288 0.339490 -0.019853 0 255 0
-0.000375 -0.362076 0.201617 0 255 0
-0.209228 -0.249812 0.109244 0 255 0
-0.046432 0.230622 0.216739 0 255 0
0.478871 -0.155882 -0.443717 0 255 0
-0.322378 0.312844 -0.452091 0 255 0
-0.158904 -0.035551 0.092993 0 255 0
-0.113849 0.266307 -0.065113 0 255 0
0.054406 0.320241 0.090550 0 255 0
-0.008637 -0.231807 -0.120029 0 255 0
0.115156 -0.074439 0.137669 0 255 0
0.098467 -0.132941 0.165135 0 255 0
-0.105558 0.197601 -0.060190 0 255 0
-0.050144 0.074987 0.177459 0 255 0
0.056008 0.043566 0.186512 0 255 0
0.164635 0.007838 0.138895 0 255 0
-0.093134 -0.156393 -0.063787 0 255 0
-0.212291 -0.355741 0.031755 0 255 0
0.047079 -0.142068 0.186443 0 255 0
0.154984 -0.237261 0.078117 0 255 0
-0.098197 0.221422 -0.001500 0 255 0
0.018271 0.114713 0.158670 0 255 0
-0.096947 0.290360 0.187290 0 255 0
-0.035535 -0.464481 0.059127 0 255 0
0.163057 0.055161 0.206680 0 255 0
0.140974 -0.372338 0.016158 0 255 0
-0.065702 -0.136786 0.169593 0 255 0
-0.178278 -0.407838 0.257664 0 255 0
-0.001322 0.120809 0.191252 0 255 0
0.152652 -0.006773 0.105622 0 255 0
-0.037623 0.174252 -0.073371 0 255 0
0.115476 0.054023 0.085777 0 255 0
0.098349 0.192964 0.095680 0 255 0
0.099566 0.361572 0.150582 0 255 0
0.022097 -0.239599 0.190598 0 255 0
-0.057822 0.354670 0.211144 0 255 0
-0.011745 -0.343123 0.183713 0 255 0
-0.044455 0.234430 0.252587 0 255 0
-0.131888 -0.225611 -0.002471 0 255 0
-0.047089 0.343949 0.096134 0 255 0
-0.022356 -0.446075 0.153513 0 255 0
-0.103263 -0.266374 0.204048 0 255 0
-0.076926 -0.389592 0.018397 0 255 0
0.005488 0.362916 0.124867 0 255 0
-0.133528 -0.062061 0.103428 0 255 0
-0.011153 0.180916 0.231298 0 255 0
0.069500 0.022590 -0.486206 0 255 0
0.094738 -0.327547 0.116487 0 255 0
-0.096299 -0.419289 0.051562 0 255 0
-0.088408 0.022332 -0.231715 0 255 0
-0.075769 -0.320053 0.129934 0 255 0
0.064874 0.218983 -0.106914 0 255 0
0.134414 0.038596 0.007941 0 255 0
0.200549 0.011569 0.032104 0 255 0
-0.011283 0.194041 0.185107 0 255 0
-0.152331 -0.293288 0.032604 0 255 0
0.012829 0.146803 -0.156820 0 255 0
0.023377 0.134193 -0.194367 0 255 0
-0.151165 0.043941 0.073209 0 255 0
-0.177749 -0.300097 -0.034567 0 255 0
0.395916 -0.028604 -0.326559 0 255 0
0.135708 -0.397585 0.184100 0 255 0
-0.120804 -0.476723 0.073924 0 255 0
-0.062811 -0.312295 0.016425 0 255 0
-0.059067 -0.298735 0.020861 0 255 0
0.140889 0.061573 0.178048 0 255 0
-0.137061 -0.284607 -0.027699 0 255 0
0.483189 0.442278 -0.334382 0 255 0
-0.006302 -0.222855 -0.073466 0 255 0
-0.148309 -0.150524 0.097299 0 255 0
0.134954 0.197982 -0.063719 0 255 0
-0.097655 0.108353 0.000177 0 255 0
0.382720 0.022335 -0.450014 0 255 0
0.134048 -0.428415 0.007965 0 255 0
-0.071417 -0.197449 0.173976 0 255 0
-0.093408 -0.086166 0.155820 0 255 0
-0.128973 -0.022453 0.046507 0 255 0
0.035773 -0.105094 0.216891 0 255 0
-0.159668 -0.447508 0.128659 0 255 0
0.197360 -0.078697 0.076252 0 255 0
-0.049550 -0.078147 0.174782 0 255 0
0.078827 -0.376186 0.128092 0 255 0
-0.138216 -0.122492 0.175536 0 255 0
-0.080974 -0.012332 0.251100 0 255 0
-0.039307 0.400259 0.006066 0 255 0
-0.106391 0.173573 0.172034 0 255 0
0.120635 0.044130 -0.055343 0 255 0
-0.126026 -0.305666 0.128055 0 255 0
0.139107 0.299438 -0.037631 0 255 0
-0.038439 0.088643 -0.122921 0 255 0
-0.149677 0.107362 -0.020433 0 255 0
0.033131 0.039450 -0.064349 0 255 0
0.087015 -0.274614 0.146661 0 255 0
-0.122785 -0.299772 0.150140 0 255 0
0.027815 0.359003 0.018172 0 255 0
-0.031939 -0.234177 -0.086577 0 255 0
-0.054649 0.184337 -0.260010 0 255 0
0.101802 -0.135444 -0.031021 0 255 0
0.125294 0.160384 0.292230 0 255 0
-0.069050 -0.362877 -0.321027 0 255 0
0.063938 -0.304299 0.187691 0 255 0
-0.177347 -0.112978 0.072281 0 255 0
0.055072 0.092457 0.223134 0 255 0
0.034989 -0.336126 -0.124598 0 255 0
0.109523 -0.004900 0.201045 0 255 0
0.129292 -0.100791 0.132804 0 255 0
-0.034768 -0.255948 0.160347 0 255 0
-0.122828 -0.173776 0.120766 0 255 0
-0.030850 0.213351 -0.099578 0 255 0
-0.070703 0.472274 0.127138 0 255 0
-0.159232 0.082146 -0.026708 0 255 0
-0.005461 0.310429 -0.064279 0 255 0
0.157549 0.036924 0.171701 0 255 0
-0.105118 -0.118462 -0.052375 0 255 0
-0.104513 -0.129688 -0.012744 0 255 0
-0.047972 -0.318685 0.210062 0 255 0
0.160488 0.209027 0.073608 0 255 0
-0.033704 0.043008 0.388312 0 255 0
0.047262 -0.409890 -0.085777 0 255 0
-0.465012 -0.171074 0.467244 0 255 0
-0.120614 0.165846 0.140127 0 255 0
0.153999 -0.192990 0.113482 0 255 0
-0.002626 0.175444 0.209159 0 255 0
-0.162877 -0.198511 0.147837 0 255 0
0.175025 -0.006766 0.141183 0 255 0
0.094945 -0.352831 0.242437 0 255 0
-0.005413 -0.407331 0.167823 0 255 0
0.010367 -0.345209 -0.479442 0 255 0
-0.069907 -0.318754 0.004503 0 255 0
-0.025212 -0.322433 -0.072819 0 255 0
0.489431 0.460870 -0.340540 0 255 0
0.109923 0.125513 0.165848 0 255 0
0.125115 0.066514 0.102276 0 255 0
-0.031244 0.090540 0.188502 0 255 0
-0.074918 -0.335092 -0.024985 0 255 0
-0.144341 -0.272483 0.051104 0 255 0
0.012300 0.324899 -0.031934 0 255 0
0.190118 -0.329713 -0.310684 0 255 0
-0.119076 0.054978 -0.013248 0 255 0
0.128524 0.055855 0.119492 0 255 0
0.007875 -0.273943 -0.031608 0 255 0
0.092187 -0.370420 -0.036066 0 255 0
-0.275564 -0.390089 -0.092075 0 255 0
-0.131178 -0.374215 0.129398 0 255 0
-0.098708 -0.169266 -0.072495 0 255 0
0.056288 0.326296 0.026763 0 255 0
0.444481 -0.144612 0.093241 0 255 0
-0.068008 0.371809 0.060908 0 255 0
0.234274 -0.426624 0.156484 0 255 0
0.127088 0.265238 0.003949 0 255 0
0.292590 0.404151 -0.315014 0 255 0
0.128865 0.002481 0.019561 0 255 0
0.105004 -0.077767 -0.034907 0 255 0
-0.088555 -0.363116 -0.031053 0 255 0
-0.171370 0.173635 -0.035614 0 255 0
-0.005889 0.025659 0.260865 0 255 0
0.066180 -0.031956 0.182119 0 255 0
-0.082120 -0.149956 0.142917 0 255 0
0.161678 -0.424922 -0.066366 0 255 0
-0.085436 -0.204115 0.174558 0 255 0
0.037361 0.087081 0.224590 0 255 0
-0.007449 0.074263 -0.098984 0 255 0
-0.068236 0.373063 -0.044156 0 255 0
0.099810 -0.310187 0.071612 0 255 0
-0.017069 -0.103763 0.213638 0 255 0
0.051702 -0.077453 0.218879 0 255 0
-0.141039 0.173782 0.092400 0 255 0
0.031026 -0.273409 0.246128 0 255 0
0.106908 -0.172827 0.194963 0 255 0
-0.033923 -0.528719 0.000359 0 255 0
-0.083507 0.159871 -0.081881 0 255 0
0.050808 0.156389 0.179188 0 255 0
0.020091 -0.531269 -0.026694 0 255 0
0.077985 -0.023826 0.186034 0 255 0
0.079141 -0.242337 0.171272 0 255 0
-0.097522 0.456269 0.056913 0 255 0
0.102820 0.003048 0.227639 0 255 0
-0.025148 0.211276 0.183467 0 255 0
-0.228879 -0.183740 0.075724 0 255 0
-0.080402 0.454312 0.076616 0 255 0
-0.141453 -0.204579 0.084259 0 255 0
-0.102244 0.147998 -0.116582 0 255 0
0.246978 -0.201804 0.309045 0 255 0
0.133932 -0.081497 0.142544 0 255 0
-0.116132 0.340965 -0.062282 0 255 0
-0.487120 -0.298554 0.322338 0 255 0
-0.092206 0.511742 0.021609 0 255 0
0.038226 0.374971 -0.024203 0 255 0
0.178752 -0.075024 0.165170 0 255 0
0.468038 -0.061221 0.447098 0 255 0
0.156370 0.210913 0.068133 0 255 0
-0.420837 0.014719 0.349780 0 255 0
0.191744 0.246912 0.110743 0 255 0
0.123230 0.220272 0.177125 0 255 0
-0.143816 -0.397542 0.261185 0 255 0
-0.002500 0.257008 0.257173 0 255 0
0.072257 0.066255 -0.181182 0 255 0
-0.036876 0.207654 0.361361 0 255 0
0.035439 -0.247075 -0.131097 0 255 0
0.063840 0.249629 0.147092 0 255 0
-0.098775 -0.193545 -0.001463 0 255 0
0.113587 -0.400500 -0.092040 0 255 0
-0.155360 -0.313985 0.190183 0 255 0
-0.201197 -0.367923 0.075034 0 255 0
0.003419 -0.201120 -0.044355 0 255 0
0.139978 -0.104862 0.053650 0 255 0
-0.047255 -0.368416 0.003076 0 255 0
0.027829 -0.307901 -0.373171 0 255 0
-0.039004 -0.452771 0.132427 0 255 0
0.084299 -0.305254 0.394068 0 255 0
0.128076 -0.451013 0.198680 0 255 0
0.148971 -0.179996 -0.021219 0 255 0
0.042070 0.295218 0.127451 0 255 0
-0.055622 0.450154 -0.025550 0 255 0
-0.038966 0.191534 0.181660 0 255 0
-0.087811 -0.235944 -0.023331 0 255 0
-0.095648 0.242619 0.051296 0 255 0
0.111252 -0.307252 0.192110 0 255 0
0.067449 0.038890 0.258265 0 255 0
0.088385 -0.000187 -0.025987 0 255 0
-0.060235 -0.160788 0.166963 0 255 0
-0.181254 -0.358999 -0.091683 0 255 0
-0.133064 -0.140670 -0.044830 0 255 0
-0.079181 -0.141638 -0.088146 0 255 0
-0.019404 0.051883 0.197101 0 255 0
-0.389729 0.339814 -0.048219 0 255 0
0.047474 -0.300715 -0.075782 0 255 0
-0.117724 -0.004101 0.114706 0 255 0
0.023211 0.094784 0.292772 0 255 0
-0.156784 -0.323321 0.084047 0 255 0
0.068395 -0.032720 0.220638 0 255 0
-0.180235 -0.326686 0.136877 0 255 0
-0.065468 -0.078806 0.172198 0 255 0
0.076205 0.264373 0.217037 0 255 0
-0.032051 0.040697 0.166706 0 255 0
0.005338 -0.160998 -0.056892 0 255 0
0.116188 0.269258 0.294613 0 255 0
0.158847 -0.174885 0.088999 0 255 0
0.158038 -0.129037 -0.038573 0 255 0
-0.183140 0.106073 0.064002 0 255 0
-0.122740 -0.169384 0.244658 0 255 0
0.048024 0.300629 0.208205 0 255 0
0.099422 -0.233900 0.006051 0 255 0
0.089552 0.235551 0.172346 0 255 0
-0.059018 -0.039059 0.213464 0 255 0
-0.011943 -0.325639 0.208299 0 255 0
-0.057050 -0.334263 -0.073356 0 255 0
-0.005326 -0.164147 0.168982 0 255 0
0.037962 0.353757 0.086142 0 255 0
0.037245 -0.299304 -0.036234 0 255 0
-0.041419 0.101714 0.218506 0 255 0
0.156136 0.152685 -0.075675 0 255 0
0.035812 0.137688 0.181927 0 255 0
-0.065849 -0.175292 0.160568 0 255 0
-0.038740 0.112492 0.158806 0 255 0
0.079712 0.164827 -0.048809 0 255 0
0.043632 -0.186965 -0.055020 0 255 0
-0.036756 0.205249 -0.054239 0 255 0
-0.083528 -0.377019 -0.000048 0 255 0
0.167403 0.203518 0.122480 0 255 0
-0.129726 0.247751 0.020336 0 255 0
-0.089241 -0.272413 -0.055748 0 255 0
-0.073303 0.029212 0.126862 0 255 0
-0.091580 0.202543 -0.081778 0 255 0
-0.101156 0.363660 0.040315 0 255 0
0.116207 -0.251865 -0.181805 0 255 0
